  0.93950936164970267       0.93950936164970267       0.93950936164970267     
  0.93950936164970267       0.93950936164970267        1.8790187232994053     
  0.93950936164970267       0.93950936164970267        2.8185280849491079     
  0.93950936164970267       0.93950936164970267        3.7580374465988107     
  0.93950936164970267       0.93950936164970267        4.6975468082485135     
  0.93950936164970267       0.93950936164970267        5.6370561698982158     
  0.93950936164970267       0.93950936164970267        6.5765655315479190     
  0.93950936164970267        1.8790187232994053       0.93950936164970267     
  0.93950936164970267        1.8790187232994053        1.8790187232994053     
  0.93950936164970267        1.8790187232994053        2.8185280849491079     
  0.93950936164970267        1.8790187232994053        3.7580374465988107     
  0.93950936164970267        1.8790187232994053        4.6975468082485135     
  0.93950936164970267        1.8790187232994053        5.6370561698982158     
  0.93950936164970267        1.8790187232994053        6.5765655315479190     
  0.93950936164970267        2.8185280849491079       0.93950936164970267     
  0.93950936164970267        2.8185280849491079        1.8790187232994053     
  0.93950936164970267        2.8185280849491079        2.8185280849491079     
  0.93950936164970267        2.8185280849491079        3.7580374465988107     
  0.93950936164970267        2.8185280849491079        4.6975468082485135     
  0.93950936164970267        2.8185280849491079        5.6370561698982158     
  0.93950936164970267        2.8185280849491079        6.5765655315479190     
  0.93950936164970267        3.7580374465988107       0.93950936164970267     
  0.93950936164970267        3.7580374465988107        1.8790187232994053     
  0.93950936164970267        3.7580374465988107        2.8185280849491079     
  0.93950936164970267        3.7580374465988107        3.7580374465988107     
  0.93950936164970267        3.7580374465988107        4.6975468082485135     
  0.93950936164970267        3.7580374465988107        5.6370561698982158     
  0.93950936164970267        3.7580374465988107        6.5765655315479190     
  0.93950936164970267        4.6975468082485135       0.93950936164970267     
  0.93950936164970267        4.6975468082485135        1.8790187232994053     
  0.93950936164970267        4.6975468082485135        2.8185280849491079     
  0.93950936164970267        4.6975468082485135        3.7580374465988107     
  0.93950936164970267        4.6975468082485135        4.6975468082485135     
  0.93950936164970267        4.6975468082485135        5.6370561698982158     
  0.93950936164970267        4.6975468082485135        6.5765655315479190     
  0.93950936164970267        5.6370561698982158       0.93950936164970267     
  0.93950936164970267        5.6370561698982158        1.8790187232994053     
  0.93950936164970267        5.6370561698982158        2.8185280849491079     
  0.93950936164970267        5.6370561698982158        3.7580374465988107     
  0.93950936164970267        5.6370561698982158        4.6975468082485135     
  0.93950936164970267        5.6370561698982158        5.6370561698982158     
  0.93950936164970267        5.6370561698982158        6.5765655315479190     
  0.93950936164970267        6.5765655315479190       0.93950936164970267     
  0.93950936164970267        6.5765655315479190        1.8790187232994053     
  0.93950936164970267        6.5765655315479190        2.8185280849491079     
  0.93950936164970267        6.5765655315479190        3.7580374465988107     
  0.93950936164970267        6.5765655315479190        4.6975468082485135     
  0.93950936164970267        6.5765655315479190        5.6370561698982158     
  0.93950936164970267        6.5765655315479190        6.5765655315479190     
   1.8790187232994053       0.93950936164970267       0.93950936164970267     
   1.8790187232994053       0.93950936164970267        1.8790187232994053     
   1.8790187232994053       0.93950936164970267        2.8185280849491079     
   1.8790187232994053       0.93950936164970267        3.7580374465988107     
   1.8790187232994053       0.93950936164970267        4.6975468082485135     
   1.8790187232994053       0.93950936164970267        5.6370561698982158     
   1.8790187232994053       0.93950936164970267        6.5765655315479190     
   1.8790187232994053        1.8790187232994053       0.93950936164970267     
   1.8790187232994053        1.8790187232994053        1.8790187232994053     
   1.8790187232994053        1.8790187232994053        2.8185280849491079     
   1.8790187232994053        1.8790187232994053        3.7580374465988107     
   1.8790187232994053        1.8790187232994053        4.6975468082485135     
   1.8790187232994053        1.8790187232994053        5.6370561698982158     
   1.8790187232994053        1.8790187232994053        6.5765655315479190     
   1.8790187232994053        2.8185280849491079       0.93950936164970267     
   1.8790187232994053        2.8185280849491079        1.8790187232994053     
   1.8790187232994053        2.8185280849491079        2.8185280849491079     
   1.8790187232994053        2.8185280849491079        3.7580374465988107     
   1.8790187232994053        2.8185280849491079        4.6975468082485135     
   1.8790187232994053        2.8185280849491079        5.6370561698982158     
   1.8790187232994053        2.8185280849491079        6.5765655315479190     
   1.8790187232994053        3.7580374465988107       0.93950936164970267     
   1.8790187232994053        3.7580374465988107        1.8790187232994053     
   1.8790187232994053        3.7580374465988107        2.8185280849491079     
   1.8790187232994053        3.7580374465988107        3.7580374465988107     
   1.8790187232994053        3.7580374465988107        4.6975468082485135     
   1.8790187232994053        3.7580374465988107        5.6370561698982158     
   1.8790187232994053        3.7580374465988107        6.5765655315479190     
   1.8790187232994053        4.6975468082485135       0.93950936164970267     
   1.8790187232994053        4.6975468082485135        1.8790187232994053     
   1.8790187232994053        4.6975468082485135        2.8185280849491079     
   1.8790187232994053        4.6975468082485135        3.7580374465988107     
   1.8790187232994053        4.6975468082485135        4.6975468082485135     
   1.8790187232994053        4.6975468082485135        5.6370561698982158     
   1.8790187232994053        4.6975468082485135        6.5765655315479190     
   1.8790187232994053        5.6370561698982158       0.93950936164970267     
   1.8790187232994053        5.6370561698982158        1.8790187232994053     
   1.8790187232994053        5.6370561698982158        2.8185280849491079     
   1.8790187232994053        5.6370561698982158        3.7580374465988107     
   1.8790187232994053        5.6370561698982158        4.6975468082485135     
   1.8790187232994053        5.6370561698982158        5.6370561698982158     
   1.8790187232994053        5.6370561698982158        6.5765655315479190     
   1.8790187232994053        6.5765655315479190       0.93950936164970267     
   1.8790187232994053        6.5765655315479190        1.8790187232994053     
   1.8790187232994053        6.5765655315479190        2.8185280849491079     
   1.8790187232994053        6.5765655315479190        3.7580374465988107     
   1.8790187232994053        6.5765655315479190        4.6975468082485135     
   1.8790187232994053        6.5765655315479190        5.6370561698982158     
   1.8790187232994053        6.5765655315479190        6.5765655315479190     
   2.8185280849491079       0.93950936164970267       0.93950936164970267     
   2.8185280849491079       0.93950936164970267        1.8790187232994053     
   2.8185280849491079       0.93950936164970267        2.8185280849491079     
   2.8185280849491079       0.93950936164970267        3.7580374465988107     
   2.8185280849491079       0.93950936164970267        4.6975468082485135     
   2.8185280849491079       0.93950936164970267        5.6370561698982158     
   2.8185280849491079       0.93950936164970267        6.5765655315479190     
   2.8185280849491079        1.8790187232994053       0.93950936164970267     
   2.8185280849491079        1.8790187232994053        1.8790187232994053     
   2.8185280849491079        1.8790187232994053        2.8185280849491079     
   2.8185280849491079        1.8790187232994053        3.7580374465988107     
   2.8185280849491079        1.8790187232994053        4.6975468082485135     
   2.8185280849491079        1.8790187232994053        5.6370561698982158     
   2.8185280849491079        1.8790187232994053        6.5765655315479190     
   2.8185280849491079        2.8185280849491079       0.93950936164970267     
   2.8185280849491079        2.8185280849491079        1.8790187232994053     
   2.8185280849491079        2.8185280849491079        2.8185280849491079     
   2.8185280849491079        2.8185280849491079        3.7580374465988107     
   2.8185280849491079        2.8185280849491079        4.6975468082485135     
   2.8185280849491079        2.8185280849491079        5.6370561698982158     
   2.8185280849491079        2.8185280849491079        6.5765655315479190     
   2.8185280849491079        3.7580374465988107       0.93950936164970267     
   2.8185280849491079        3.7580374465988107        1.8790187232994053     
   2.8185280849491079        3.7580374465988107        2.8185280849491079     
   2.8185280849491079        3.7580374465988107        3.7580374465988107     
   2.8185280849491079        3.7580374465988107        4.6975468082485135     
   2.8185280849491079        3.7580374465988107        5.6370561698982158     
   2.8185280849491079        3.7580374465988107        6.5765655315479190     
   2.8185280849491079        4.6975468082485135       0.93950936164970267     
   2.8185280849491079        4.6975468082485135        1.8790187232994053     
   2.8185280849491079        4.6975468082485135        2.8185280849491079     
   2.8185280849491079        4.6975468082485135        3.7580374465988107     
   2.8185280849491079        4.6975468082485135        4.6975468082485135     
   2.8185280849491079        4.6975468082485135        5.6370561698982158     
   2.8185280849491079        4.6975468082485135        6.5765655315479190     
   2.8185280849491079        5.6370561698982158       0.93950936164970267     
   2.8185280849491079        5.6370561698982158        1.8790187232994053     
   2.8185280849491079        5.6370561698982158        2.8185280849491079     
   2.8185280849491079        5.6370561698982158        3.7580374465988107     
   2.8185280849491079        5.6370561698982158        4.6975468082485135     
   2.8185280849491079        5.6370561698982158        5.6370561698982158     
   2.8185280849491079        5.6370561698982158        6.5765655315479190     
   2.8185280849491079        6.5765655315479190       0.93950936164970267     
   2.8185280849491079        6.5765655315479190        1.8790187232994053     
   2.8185280849491079        6.5765655315479190        2.8185280849491079     
   2.8185280849491079        6.5765655315479190        3.7580374465988107     
   2.8185280849491079        6.5765655315479190        4.6975468082485135     
   2.8185280849491079        6.5765655315479190        5.6370561698982158     
   2.8185280849491079        6.5765655315479190        6.5765655315479190     
   3.7580374465988107       0.93950936164970267       0.93950936164970267     
   3.7580374465988107       0.93950936164970267        1.8790187232994053     
   3.7580374465988107       0.93950936164970267        2.8185280849491079     
   3.7580374465988107       0.93950936164970267        3.7580374465988107     
   3.7580374465988107       0.93950936164970267        4.6975468082485135     
   3.7580374465988107       0.93950936164970267        5.6370561698982158     
   3.7580374465988107       0.93950936164970267        6.5765655315479190     
   3.7580374465988107        1.8790187232994053       0.93950936164970267     
   3.7580374465988107        1.8790187232994053        1.8790187232994053     
   3.7580374465988107        1.8790187232994053        2.8185280849491079     
   3.7580374465988107        1.8790187232994053        3.7580374465988107     
   3.7580374465988107        1.8790187232994053        4.6975468082485135     
   3.7580374465988107        1.8790187232994053        5.6370561698982158     
   3.7580374465988107        1.8790187232994053        6.5765655315479190     
   3.7580374465988107        2.8185280849491079       0.93950936164970267     
   3.7580374465988107        2.8185280849491079        1.8790187232994053     
   3.7580374465988107        2.8185280849491079        2.8185280849491079     
   3.7580374465988107        2.8185280849491079        3.7580374465988107     
   3.7580374465988107        2.8185280849491079        4.6975468082485135     
   3.7580374465988107        2.8185280849491079        5.6370561698982158     
   3.7580374465988107        2.8185280849491079        6.5765655315479190     
   3.7580374465988107        3.7580374465988107       0.93950936164970267     
   3.7580374465988107        3.7580374465988107        1.8790187232994053     
   3.7580374465988107        3.7580374465988107        2.8185280849491079     
   3.7580374465988107        3.7580374465988107        3.7580374465988107     
   3.7580374465988107        3.7580374465988107        4.6975468082485135     
   3.7580374465988107        3.7580374465988107        5.6370561698982158     
   3.7580374465988107        3.7580374465988107        6.5765655315479190     
   3.7580374465988107        4.6975468082485135       0.93950936164970267     
   3.7580374465988107        4.6975468082485135        1.8790187232994053     
   3.7580374465988107        4.6975468082485135        2.8185280849491079     
   3.7580374465988107        4.6975468082485135        3.7580374465988107     
   3.7580374465988107        4.6975468082485135        4.6975468082485135     
   3.7580374465988107        4.6975468082485135        5.6370561698982158     
   3.7580374465988107        4.6975468082485135        6.5765655315479190     
   3.7580374465988107        5.6370561698982158       0.93950936164970267     
   3.7580374465988107        5.6370561698982158        1.8790187232994053     
   3.7580374465988107        5.6370561698982158        2.8185280849491079     
   3.7580374465988107        5.6370561698982158        3.7580374465988107     
   3.7580374465988107        5.6370561698982158        4.6975468082485135     
   3.7580374465988107        5.6370561698982158        5.6370561698982158     
   3.7580374465988107        5.6370561698982158        6.5765655315479190     
   3.7580374465988107        6.5765655315479190       0.93950936164970267     
   3.7580374465988107        6.5765655315479190        1.8790187232994053     
   3.7580374465988107        6.5765655315479190        2.8185280849491079     
   3.7580374465988107        6.5765655315479190        3.7580374465988107     
   3.7580374465988107        6.5765655315479190        4.6975468082485135     
   3.7580374465988107        6.5765655315479190        5.6370561698982158     
   3.7580374465988107        6.5765655315479190        6.5765655315479190     
   4.6975468082485135       0.93950936164970267       0.93950936164970267     
   4.6975468082485135       0.93950936164970267        1.8790187232994053     
   4.6975468082485135       0.93950936164970267        2.8185280849491079     
   4.6975468082485135       0.93950936164970267        3.7580374465988107     
   4.6975468082485135       0.93950936164970267        4.6975468082485135     
   4.6975468082485135       0.93950936164970267        5.6370561698982158     
   4.6975468082485135       0.93950936164970267        6.5765655315479190     
   4.6975468082485135        1.8790187232994053       0.93950936164970267     
   4.6975468082485135        1.8790187232994053        1.8790187232994053     
   4.6975468082485135        1.8790187232994053        2.8185280849491079     
   4.6975468082485135        1.8790187232994053        3.7580374465988107     
   4.6975468082485135        1.8790187232994053        4.6975468082485135     
   4.6975468082485135        1.8790187232994053        5.6370561698982158     
   4.6975468082485135        1.8790187232994053        6.5765655315479190     
   4.6975468082485135        2.8185280849491079       0.93950936164970267     
   4.6975468082485135        2.8185280849491079        1.8790187232994053     
   4.6975468082485135        2.8185280849491079        2.8185280849491079     
   4.6975468082485135        2.8185280849491079        3.7580374465988107     
   4.6975468082485135        2.8185280849491079        4.6975468082485135     
   4.6975468082485135        2.8185280849491079        5.6370561698982158     
   4.6975468082485135        2.8185280849491079        6.5765655315479190     
   4.6975468082485135        3.7580374465988107       0.93950936164970267     
   4.6975468082485135        3.7580374465988107        1.8790187232994053     
   4.6975468082485135        3.7580374465988107        2.8185280849491079     
   4.6975468082485135        3.7580374465988107        3.7580374465988107     
   4.6975468082485135        3.7580374465988107        4.6975468082485135     
   4.6975468082485135        3.7580374465988107        5.6370561698982158     
   4.6975468082485135        3.7580374465988107        6.5765655315479190     
   4.6975468082485135        4.6975468082485135       0.93950936164970267     
   4.6975468082485135        4.6975468082485135        1.8790187232994053     
   4.6975468082485135        4.6975468082485135        2.8185280849491079     
   4.6975468082485135        4.6975468082485135        3.7580374465988107     
   4.6975468082485135        4.6975468082485135        4.6975468082485135     
   4.6975468082485135        4.6975468082485135        5.6370561698982158     
   4.6975468082485135        4.6975468082485135        6.5765655315479190     
   4.6975468082485135        5.6370561698982158       0.93950936164970267     
   4.6975468082485135        5.6370561698982158        1.8790187232994053     
   4.6975468082485135        5.6370561698982158        2.8185280849491079     
   4.6975468082485135        5.6370561698982158        3.7580374465988107     
   4.6975468082485135        5.6370561698982158        4.6975468082485135     
   4.6975468082485135        5.6370561698982158        5.6370561698982158     
   4.6975468082485135        5.6370561698982158        6.5765655315479190     
   4.6975468082485135        6.5765655315479190       0.93950936164970267     
   4.6975468082485135        6.5765655315479190        1.8790187232994053     
   4.6975468082485135        6.5765655315479190        2.8185280849491079     
   4.6975468082485135        6.5765655315479190        3.7580374465988107     
   4.6975468082485135        6.5765655315479190        4.6975468082485135     
   4.6975468082485135        6.5765655315479190        5.6370561698982158     
   4.6975468082485135        6.5765655315479190        6.5765655315479190     
   5.6370561698982158       0.93950936164970267       0.93950936164970267     
   5.6370561698982158       0.93950936164970267        1.8790187232994053     
   5.6370561698982158       0.93950936164970267        2.8185280849491079     
   5.6370561698982158       0.93950936164970267        3.7580374465988107     
   5.6370561698982158       0.93950936164970267        4.6975468082485135     
   5.6370561698982158       0.93950936164970267        5.6370561698982158     
   5.6370561698982158       0.93950936164970267        6.5765655315479190     
   5.6370561698982158        1.8790187232994053       0.93950936164970267     
   5.6370561698982158        1.8790187232994053        1.8790187232994053     
   5.6370561698982158        1.8790187232994053        2.8185280849491079     
   5.6370561698982158        1.8790187232994053        3.7580374465988107     
