  -63.664177890821179        608.39250571029550        17.335720937144426     
  -619.03358543116860        202.18897476119349       -23.667996595261503     
   439.63140003429328       -530.46128937719391        12.161667948326675     
   588.13699507376521        228.97152171721706        34.023131068232843     
   646.27205272109813        15.266498343728891        8.3440332366676699     
  -471.24421461304701        421.79678539334844        20.569427234395111     
   611.98006742162306        170.37063758555615       -11.410178302993714     
  -548.40896766323624        330.91411896055632       -10.843182226686986     
   535.57283786303105        321.75510499030617       -11.845026638372458     
  -666.38818177803580       -101.40306359522555      -0.47943059375453373     
   633.57205751341360       -191.71489442815377       -22.092124026489028     
   393.06583314782199        473.22707233729420        3.3628049306164347     
   449.93503889827633       -520.64683345990807        18.594435814833140     
  -636.50953494472208       -251.26673001451982       -7.0974446592086204     
   175.49256013440404       -680.78549547512409        7.8592469904288169     
   648.28442627374864       -10.948144467937439       -29.394038211854575     
   647.46049712922684       -98.207181701225267        8.0389633196958101     
   386.05754795205297        478.55558333151998        7.1118475483778552     
   299.24332796875473       -630.46200566936307        37.028029029290252     
   523.09426754736671        339.49437975554383       -19.168076340515171     
  -12.609991904987755        610.54946301074881       -32.637267403201896     
  -47.185527201255880        609.48218415767656       -20.286716860913074     
   102.25270858405435       -697.75086886169572       -16.334923489601245     
   640.20377988387463        61.023346921346551       -11.478652342889159     
  -278.77859461115793       -649.81760117449880        9.2852651104436941     
   596.52967794803612       -306.90274772579556       -11.408050809092929     
   399.78996383413073        467.96645774743376        15.812207357293696     
   649.24102887250433       -60.963641524035076       -7.5694527504723386     
   119.88098597812709       -694.47930172551048       -11.692407161982358     
  -597.64680073946556        248.91621678444102       -1.6152017848073632     
  -637.32192860104647       -248.75636241694230        26.178707263323155     
  -586.30487220689179        270.38062625831640       -8.9292935307438661     
  -445.10402357677219       -542.87140076738763       -4.2155458534916281     
  -438.13746293738768        452.16496971846982        1.9054588473567620     
  -193.68374859572228        584.31399865226490       -11.779301948222516     
   548.58396703135759       -398.59445801972174       -10.470338019897030     
   261.70026080512127       -648.87544614659828        18.767391879649271     
   642.49925453190565       -143.15335753290120        5.8283839559495663     
  -541.49425316022916        340.56184350469721      -0.96020461676179070     
  -223.05655979868123        575.02468113370492       -22.963104166497143     
   620.66192971313671       -240.69366963517976       -10.279050102249251     
   207.17337072885672       -670.65490937820357       -2.1537085328674861     
   273.31763444175988       -643.49112698791612        3.6995831465268290     
  -306.51250310340112        539.87176806830007       -4.2240324478082298     
  -93.069991554201820        605.24752000641581        15.553102321318999     
   534.47433657558292       -420.12291716627021        11.026403041110152     
  -606.68402676153903        230.32188992362614        10.168150153647227     
  -126.05774940007655       -696.93937773177834        5.8624035496333136     
  -444.96972959170904       -542.99372545616279        17.755461907255064     
  -73.563187432645435        607.44138648582862       -5.2858353974894001     
  -553.21104444938862        324.00620962991491        3.2416246357836953     
  -589.72088191962189       -360.84921917741815        38.710468860066605     
   300.78812613665229       -629.64575316397520       0.57934224330745110     
  -647.29446590162877        117.51451764835025       -12.328429869846627     
  -572.65173878760311        293.89657750972793        20.204570425033630     
   617.13051651153103        155.14354131562897        4.5357366178862364     
   643.00127572860583       -139.64040646543859       -16.903173819106051     
   319.64788489536147       -619.17116626300083        2.4876758374970911     
  -126.50534943789647        600.11122502118280        7.7705756775336923     
   503.49352104451447       -461.83726913792623        16.246615181755548     
   469.19816789968434       -501.10427937100337       -4.8859856932903094     
  -592.96767207882124        257.98704025794387      -0.44279636372974596     
   61.897248713460172        606.67224108594291        63.479090340147408     
  -641.97482064848714        136.77042704167255        8.3130276259809825     
  -433.18300843517716        456.36348165601515       -10.851916239767245     
  -371.64823663383083       -598.93197345093279        16.271154066896987     
  -47.421144175875646        609.47018112309047       -20.327258805312990     
   104.30251035669197       -697.40444486116826        6.0602641095389522     
  -649.40418669191229       -205.94211752570973       -21.875733404194694     
  -609.74891277746678       -320.40845284963433       -9.3258993213122494     
   642.70102050571859        45.009029116251106        23.364877791622860     
  -431.35307410811953       -554.64850424104782        7.9237485378729238     
  -409.38877736521079        475.41602101535068       -6.4311519700166455     
  -665.84638803536711       -107.65760812181409        6.1031786067244482     
  -89.849658789680504        605.65171615112899       -20.130958853455969     
  -668.07347394753879       -72.720077012429243       -2.7740580676270206     
   208.03236496992159        573.59392139817555       -14.210789538274392     
   52.946262513808605        607.58520286865053        18.528204381657392     
   285.95660682681392        540.57182768813345       -13.209941119579156     
  -302.72843217741422        541.76387677849402      -0.86086079507206092     
   488.30911442523075        383.24225067971571       -14.291467834071730     
   607.40403279063457        182.97635012040141        7.4717568836876325     
   415.83024617633231       -551.60506077179036       -1.2720311853015429     
   507.84000302016665       -456.37978738942104       0.79367034154902694     
   355.54775677030818        500.14118778111117       -13.520767193996354     
  -405.13850482470156        478.62960356045403       -44.763175939774285     
   496.82701710548872       -469.97593882499154        5.0384011657979686     
   569.56671819128360       -362.66856040373159       -19.925047037822807     
   149.14892153686850        591.15037762739155       -1.3516715443227207     
  -261.23408494568349       -657.37196169711240        36.949436216232591     
   637.75458953619182        74.690957347176692       -4.3332906069835895     
   328.31947859065275       -614.08984687631698        17.987145916411087     
  -260.02487575933151       -657.86782614308675        20.161501838920611     
   624.13896480373717        132.14519160737487       -22.447679772367710     
   451.28127609066314       -519.33535575807286       -32.961458480359148     
  -520.86754107969716        367.29307171731671       -18.738338783998806     
   648.41167486357324       -13.171418115486276        1.1426280343243331     
   219.85204861229943       -666.08288812402202       -18.544447199087731     
   647.25673818769246        4.0766248540781405        31.673224714261288     
   551.07283761739450        297.84142011959113       -11.196848599031034     
  -24.996722655224865        610.37532547608566       -22.943960841574526     
  -621.37381344008838       -293.17491569275774      -0.72481494880662356     
  -488.97239058492812       -500.47098492808033        12.785522740873416     
  -633.99315723067286       -258.92462916216402        16.938591175514123     
  -292.20036639866476        546.88154538578203       -18.320130140709228     
   623.89341293384268       -229.79728161274031        7.0204267846230337     
  -215.65841102323935        577.50242151236944       -9.1663422889726629     
   358.90028945695059        497.89707029130295       -12.995787055839738     
   640.42691322765040       -156.50382457521843        38.389429625144892     
   605.02113437891023        189.22080608658550        12.792326935397940     
  -662.19558063559828        42.755855395489569        22.191625613909039     
   11.055743378333586        610.24461565942875       -4.1729610536744435     
   80.179971144615948        604.41313584795876      -0.43630681542332062     
   542.42788343274594       -408.22461432810610       -6.4408690796266814     
  -664.29550125578373       -122.85965435779937        11.716160747706915     
   177.54238685459964       -680.18459253352273       -20.609270798143047     
   532.37096134959972       -423.18806414004291       -9.6300271880622965     
  -585.26450094988024        272.23950523723767        24.686540878067284     
  -403.40780699325626        479.94642171849387        20.336641604990280     
  -475.02662586225568        418.06481081965961       -6.2256445322524678     
   612.73650361597686       -264.98200938292558        21.827821125186802     
  -648.95931450224293       -207.73155075888846       -9.2943386094841642     
  -649.60331064011621       -205.13314961657142      -0.31205558575276032     
  -440.14388142663489        450.43930677917774        17.863859051990310     
  -627.19682416459818        181.30346388658319       -12.091617673681233     
  -38.841765873630294       -706.66908549554171       -21.522714469009482     
  -333.74043469465494        525.31480196706832       -8.8545249674809750     
  -304.99739256747921        540.63799809230125        23.074863409458892     
   23.145082353563502        609.74075375870632        10.290158384314992     
  -627.78912342504714        179.71861429982067        1.5037289831646359     
   630.31118246590086        108.86455772527958        12.942582074612613     
   622.43995725048501       -234.75721077722073       -3.5330972190806027     
  -666.16647254757004        7.2502697467048804       -12.798417346297708     
   469.19758367639844       -501.10508546067950       -6.6808282091137485     
  -5.2293384877811988E-002   610.49538765646730       -18.013817773681307     
   152.80619638219858        590.24840637962359       -1.3023602472215008     
  -381.82540417863783       -592.09822083969937        12.788336745906223     
  -664.98564047397667       -116.53436343288860       -12.522620761362168     
   442.94207442974005       -527.34936565743931       -5.0164440043105465     
   547.10159787601913       -400.95409708084367       -11.458795244455313     
   354.46023376985727       -597.62859855108115       -5.2054967735631061     
  -610.60927083470676        221.75766888533411        16.287589149009818     
  -103.31037070649458       -700.61752719275023       -18.467813221793385     
   55.075174807773990       -704.13434738413957        28.830601357081196     
  -564.37432130310242       -403.91606978355480        3.1540710761746475     
  -324.76995047904785        530.28822093285783       -6.9938896627103952     
  -84.271551016484651        606.30816804870085        13.738653567581043     
   146.24263884950264        591.86933423363462       -11.989397052798603     
   644.50278513857245        31.399360666881556       -7.9189657767886841     
  -366.60778194928832       -602.21328968883415       -1.5564576106913985     
   562.09510363864013        279.32608568512040       -26.102518301959684     
   630.06649683730905        109.89918150299135       -9.0057376891299477     
   278.50157704772113        544.24639210305452       -20.121866560703829     
  -661.31344320682683       -145.55327070895902       0.88015809707521819     
  -652.84751981313468        94.494485678408836        8.3202706560745305     
   622.57716422231590       -234.29545773182497        7.5542623708324310     
   597.96475343180384        206.76116386827522        8.1566558839530146     
  -365.60070950902741       -602.85913078472254        19.157865489806046     
   222.02151880172394       -665.26725617754209        3.5101724562242418     
  -71.480238523817718       -704.39993918293510       -4.9604625317272584     
  -129.17737110757460        599.61052913705112        4.0456406516016932     
  -458.19884391079125       -531.02257264334844        23.482939639002083     
   499.45337726095079       -466.80389633527597       -6.1548889262920197     
  -262.79888543134643       -656.73111426809464        10.470828462802304     
   623.41903808914515        134.70726649195953       -8.0872095098068044     
  -393.71568297507014        487.02759513796320       -16.950511039437387     
  -501.03287570173757        390.58999251284371       -9.1619668797618221     
  -138.83304880571291        597.76473024650591       -9.5931904498500433     
   300.46271713295351        533.05449258660212        24.157411919223630     
  -660.61172256733016       -150.18220941918239        12.654823617666111     
   381.09274667956072       -579.01486355141265        6.0384411250388697     
  -353.84752181794289       -610.25685574453416        2.8947579737684750     
   629.99362772799702        110.16587592056587       -1.5540097717756867     
   381.99861649813010        481.57837777353643        17.494153412909885     
  -341.79433158803818        520.68738079370792        25.551385898698932     
  -348.32498419631480        516.82780022993268        1.4275508916746797     
   478.14014778627239       -491.46786143835709        26.695469155208777     
   597.89653573884925        206.89203752944238        35.421390964210275     
   586.42703600598759        232.62767066120239        4.5117492706953293     
   514.45982472635023        351.08451475928928        5.3638858046932940     
  -643.42937523090632       -228.47661777095277        45.989075255365897     
  -527.67984340014800        358.78097060426683        10.844969491586975     
  -588.79883185937661        265.79397766841674       -37.970216310317497     
  -621.93670681290075       -291.74899835352443        21.467589074585202     
  -657.46396864147698        71.816147356292930        3.5389615586464367     
   345.25218250862412       -603.61408150954151       -15.515576834917248     
  -648.38314613173088        113.33128132401734        8.2154336652068132     
  -225.09755252139885        574.31824226749927        36.499408762721281     
  -143.08087889827999       -693.65014848792475        15.387898597911905     
   7.3903196360479360        610.35821940459107       -8.7397401442068077     
   132.22651823095191        595.11392143506305        5.9609393380865061     
  -255.41228948436162       -659.73972943671242       -17.674189220600859     
  -357.34272227373566       -608.07504086676659        21.921972825092052     
  -554.49158597849078        322.12071519343039        28.129074579122200     
   645.88834333926877       -115.82252343689396       -10.567346445628228     
  -286.99542088438096        549.32025573504723       -10.879847569346857     
   36.814177773347623       -705.67594056359519        7.2160668971302302     
  -223.37493125011733        574.90931560206332        12.314001410305405     
   175.49799230363027       -680.78648515037753        3.2401482215322344     
  -368.20948697454207        504.41909461302339        31.348256250947916     
   623.84136765123935        133.18737404968613       -13.216918934302770     
   294.26212094050805        536.31889697096574       -8.8164925064079345     
   470.03780363485731       -500.23535898911416        5.4134798670937307     
   38.266651806395245       -705.57496950260224       -11.190567277260973     
  -618.89872072548803        202.48892991996988        7.7687192618264254     
   24.016803319927654       -706.45858839525158        5.9363889132339835     
   320.81320993060990       -618.49871191265879       -18.452866023315217     
  -472.31619726904853       -517.51266351230538       -12.642406734407968     
   166.47787349669392       -683.36122663704964        12.662692886671513     
   10.983527341021057       -706.99797255346982       -9.0485678817142912     
   365.42569767439107        493.44096714114073        26.228108445510298     
  -661.06897199310470        50.453220859151251        11.514523390912702     
  -437.20959745148593        452.95872036765877       -1.8148002196936717     
  -569.12326173500696       -396.39051369538180        5.7037413822442087     
   635.86166467284283       -181.00613938552104        7.8085506459953367     
   428.30611753926331       -540.76881857706144       -4.6866877183562137     
   341.23821404300480        509.40761796638128        2.2798150100865997     
   579.99264335677844       -342.64869025796997       -12.467697984339303     
  -524.13920252339392        363.24737536688014        8.7851066665008322     
   302.95226064892643        531.71910404812377      -0.87389124957836750     
   192.99195470681985        578.64346782387167       -2.8932444197595593     
   648.25260175970732       -86.443016581377577        7.9708434009007414     
  -432.61574810226631       -553.59181946302203      -0.24915828361600750     
   628.20740301424689       -214.02942104297665       -7.4745951985610555     
  -547.33736868169717       -429.19853239541436       -2.8875832241016548     
  -332.04793356321517       -623.01953340181763       -5.9844955769623125     
  -340.41214693178409        521.48960804957210       -9.9586716222190166     
   176.24456774115021        583.81444518358887        28.198668671920167     
   635.18125700339590        87.526276345759754       -14.798023249130438     
  -336.79361563059928       -620.33221996446628       -3.5643444229700263     
   559.88361647515694       -379.91064986459730       -5.0086682739431563     
  -334.06810839113069        525.12620405371933       -40.273166314435954     
  -592.30705957157249       -356.01849461798554       -6.7332302871194321     
  -619.65326208743545        200.68803885414951       -14.784607769274745     
  -23.171003265717406       -707.17160155979934        22.195074145318376     
   434.30022820325610        438.61635297398010        8.7538039783890014     
  -574.45486720949350       -387.66869733181773       -5.4561071760051334     
   275.31930091706403        545.77842437751690        11.989920594256699     
   495.23203440267287       -471.88865685172539        8.9343837960342505     
   225.82990221101929        567.06652455181950       -2.8604085058825848     
   157.65770772422471        588.98399209798538       -12.952860225364706     
  -279.56840360212630        552.71557847097472        4.4737269828357986     
  -515.60308555053894        373.68749990063810        5.9830836531407092     
  -621.62077900935481        195.77120223925343       -14.770895392949509     
  -289.30358533173955        548.23938014585826       -4.9223078230573520     
   587.07250578600735        231.25355594801857       -15.685585605297710     
   483.97757861823681       -484.94481650556241       -9.8729676124345591     
   54.586669842521033        607.42237573333682       -4.9811540668936498     
  -341.95228854380139       -617.34710354595302        37.765959318897494     
   409.73357452243960       -556.67680283607319       -25.927076669868324     
   219.66235809712308        569.39044859737351       -28.814412948506604     
  -523.46398165508708        364.08128279817527       -12.289430556582492     
   4.9653080571109918        610.40179757579381       -8.5379330032733147     
  -40.346246656677387       -706.59433445531999        2.9375314741188516     
  -404.02829936397563        479.51852624047683        23.921821879057390     
   595.91816776740734        211.56524739354916       -3.6836123964497696     
  -300.77979236288820        542.72242347242616        24.402589446834632     
  -623.78137124362866       -287.04262380923666       -5.2297073519173063     
   172.22227757751747       -681.74273400849461        1.0637721064376782     
  -495.18459316233373        397.04765754070553        2.4578847428508546     
   438.47543053580500       -531.53020814131060       -20.196736835657756     
  -642.48646979036278       -231.76027136120925       -8.2490086268400891     
   621.90198064467097       -236.57139694634083        25.286399365486698     
  -614.02854774839057        214.00169736571644       -46.526964682095802     
   568.07055085939396       -365.43032660285616        16.545954827869711     
  -43.047960226658425        609.71060503210458        16.013610727685908     
   648.02229349265997       -6.5168843215347678        3.3999305282183121     
  -354.96716987440612        512.78575199989075        2.6740321727015450     
  -354.95969127151966       -609.54778481298240       0.32631538511307151     
  -197.99215085063628        583.04882167456753       -7.6654540441619288     
   149.77429130441311        591.01052301240827       -4.3305752339472390     
  -619.79203808613204        200.30648785777640        13.422628539935179     
  -268.64972519432752        557.49319719718540       -9.5330830027965821     
  -372.05862309691645        501.90412283032981        1.5425053405223959     
  -276.23082654082822       -650.96090939347312       -7.3139780884197103     
  -578.92816365836529       -380.10771150947323       -13.576773522379670     
  -362.38733635874001        508.15299984905698        24.323972147169119     
  -668.51656396296437       -49.793129842779400       -13.958319181192637     
  -640.70798410745329       -237.79337392553509        15.161551374335769     
   406.09821251081252       -559.66919242930430       -29.947227318737973     
  -575.57226657809076       -385.79740754583008       -18.016447751531963     
   36.973878515871156       -705.66732668018051        14.207678383329332     
   60.145013747301775        606.85739204558161       -7.8984272864987748     
  -532.27096954471699        352.86166344261915       -25.963276143993909     
   632.09726824766540        101.42799902069706        2.6108550361519192     
  -249.29449347910992        565.40774230727413        1.3026602305930515     
  -353.58579180757704       -610.39462042474702        21.161612128316360     
   141.83027066395400       -689.68153056570270       -11.289479981963492     
  -47.730484446500085        609.45067296595323        11.126928859261698     
  -196.91480932035486       -680.12417251198144        20.397348173869695     
  -258.29257974667269       -658.57623943452256       -1.9674785032658688     
   443.74928674368749       -526.59247921331814       -4.7048372112976056     
   337.30559260649977       -608.61321061419608       -28.758722671532954     
  -632.54694116341693       -263.13299163051317        3.2030707341316793     
  -463.02100792569667       -526.49064456716007      -0.43132999569556757     
  -78.132990910242981        606.98062466083422      -0.33564818703808835     
  -668.50870218146508       -52.723830489711382        29.686187174405227     
  -656.33862360801106        77.729335127870542       -16.010885720338649     
  -179.57480888273901       -685.01715564885126        1.5361730316654068     
   493.84483750926461       -473.52987817933848        27.475779933361682     
  -142.63603678115453        596.98398296176879       -16.827559701701503     
   200.37269991929219        576.21049081489662        20.600804516153168     
  -476.66113475785818       -513.17182525777866        9.7471563308401361     
   615.72628309922982       -256.19603251386252       -7.5306942736428377     
  -661.31033518476818        48.832499180879914        9.5240004984287943     
  -642.96084216901920        133.37283141393399        46.517916161380391     
   429.30517892814692       -539.87507031150506        42.447436692175998     
  -137.03627134238334       -694.86971840405408        3.3828167976578922     
  -1.3473705070398534        610.50484708762747       -6.4956907293587900     
   614.49096821542219        163.10473457432283       -3.5032980646052105     
   468.91619759097949        404.65236033664985       0.62427560056095988     
  -114.42810797031341        602.16046200154256        27.890036184938470     
   86.124453766494199       -700.32340873002795       -5.2016725643787787     
  -546.49393370562143       -430.39018534816847        6.8664324214740242     
   603.98315854927148       -288.64688228763032       -13.888484093002063     
   517.20645994712947       -444.21361647857685       -21.011890485380849     
   597.46371511141842       -304.67301799092326        7.7338054498849278     
   594.19192742173175       -312.28429693374306        12.532440330141684     
   188.25858602959937       -676.91294516679113      -0.70367807530933824     
  -484.99068633880751        407.89192871550642        7.7313329681356402     
   599.17650136657255        203.82374176389740       -13.065210087627335     
  -636.60551657383587       -250.96578957567937        9.0779487520623583     
  -628.98239577521178        176.44060666503390       -3.4164683623946801     
   649.34598275414066       -46.099399166403678       -10.132240776987155     
   646.19052952604477       -112.80226912851455       -26.902897101173210     
  -116.76844856732990        601.78029415874812        1.6535631056840905     
   492.09191750405608        378.83884389984576       -7.2969902321201454     
   575.33676725290331       -351.79574577528979       -6.8488896649766859E-002
  -214.91946855299912       -674.50570609242800       -14.269937733927412     
   556.22031019086410        289.35982391246438       -16.737458278074200     
   639.53236899150500        64.985381578966638        4.2668052655098876     
  -550.11456591902345       -425.23488232272769       -9.8780069496653411     
   620.14170297714668        145.64878722817582        12.730407831851705     
  -421.31724084260628        466.08442974068089       -12.897781499348291     
  -348.05162356602506       -613.74145513852443       -27.227627176625166     
   215.83034368528408       -667.56186809097085        24.922264136541290     
   77.095391326546022        604.82780555088357        1.2909765012193277     
   569.18292679879767        266.61949095210713       -11.343626352916308     
  -372.35528641071505        501.72283902458730        17.242665222502279     
  -648.58711619742257        112.50314538165969       -1.6289204194792082     
   296.14366705117828        535.33715908024715        16.857894018655944     
  -395.14176697865520       -582.74655614499636        16.857667685900150     
   597.23928889862589        208.44462799534875        3.9901288797489052     
   112.81157432232888        599.08683936977741        2.4187788953086433     
  -28.107130315093492        610.29865577193993        3.9959388928910169     
   329.23233469249266       -613.52957106955898       -1.8899911357851038     
   526.87776233834063        334.24299944352873       -10.270366380007783     
  -322.27140200443745        531.64436609250845        24.850838125536502     
  -285.24057348489845        550.12551120221701       -25.385625823416227     
   210.06143330288040        572.86837668199701        10.122296375887659     
   520.53802147057036       -439.73847670241270       -5.9937541603296873     
   415.67141888342871       -551.71686223680717       -11.002385202656141     
  -664.12446377402352       -124.35920934891084       -9.5054379453471807     
  -450.69442776851719        441.13221645975165       -8.7623937379579395     
   350.00792091245791       -600.54866932510117        25.627530335031626     
  -417.70399568337848        468.95972974080712       -12.276308167311090     
   633.51565272767664        95.220169577385377        14.714993269459441     
   243.39128297738026        560.06056070908630        10.268727615563353     
  -229.25407228582463        572.86728914244145       0.71300170146131814     
  -561.07218614688486        312.26345044145160        24.820528780831026     
   121.33616536996894        597.42288983270294        9.9649636072437691     
  -667.46267293956828       -11.090106569591761        39.636277087019828     
   84.092797685622756       -700.61985174869733        8.7722036679182107     
   640.64413157066201       -155.15502870429535        11.583493891453120     
   528.78194389892997        331.57575992222803       -5.9821618160030141     
  -379.67865697734419        496.80607233911064        3.1092810931710737     
   593.62497034152818       -313.58129874942591       -42.267367934757019     
   117.56865532886820       -694.92697216936233       -15.086827821588400     
  -293.46768537032938       -643.02840621022062       -8.7670151138942725     
   613.68776772340709        165.45377512047261        17.164327657061964     
  -615.53461542916705       -307.26008521281710       -14.671431298454490     
  -666.24039717410562       -103.18459867009022       -7.4662238934484968     
  -246.23464731983347        566.59500961820140        20.610683194560099     
  -308.20908181038544        539.01815448823311        3.9950421655803563     
  -343.48558395940648        519.70770284551679        34.314502641994153     
  -337.35739807484919       -620.01366964524266       -4.4438834229990487     
  -415.73825990469277       -567.26215146325455       -2.7077176977361810     
   576.84666221637565        252.12207562392570        8.5138150709718960     
   645.26353550532758       -121.74091483001141       -18.270293463718001     
  -279.71871980732948        552.63827184627758        15.959806461643700     
   187.17434670524793        580.49193493229279        13.871259910797932     
  -329.97410988306598        527.42178685886597       0.37075613820038017     
   571.62449035164195       -358.86946975024119       -17.173694176260838     
  -667.44381551981928       -86.139644947149520       -8.9960408071317772     
   527.23484431240547        333.74717429304144       -3.7509401952443717     
   484.08717894848985        388.06971673080483        6.5532279851310626     
  -663.63367189966448       -128.47786732338329        21.261762842966608     
  -9.2538512199801595       -707.31451562300253       -17.588101160335867     
  -654.72089327785261       -182.51512305084140       -2.0792002862925743     
   174.50527359559294        584.31670000986219       -3.6704618675660203     
   416.63999475126059       -550.93143581528898       -10.247665437791586     
   618.11826003504314       -248.85163649590456       -20.265683518883971     
  -487.78608712599305        404.97759037963959       -5.4941080858217193     
   595.68366390757217        212.08977012509058       0.16386064849684651     
  -507.38662537812047        383.34667860572438        7.4019366856951612     
   526.03046652028218        335.43067849655671       -30.853325314412096     
  -580.50965535352350        280.62301052586349        3.8791335492164838     
   647.87492700801420       -92.554390987304288        19.152143491185242     
  -668.39601987901654       -35.418730366778227       -6.1754898277277670     
  -371.19669794737399        502.46720883099454       -15.316298063445487     
   277.34757091995380       -641.55805449104037        6.9099049481360497     
   213.57204838990134       -668.37914846667479        18.645146679782272     
  -659.54010179147883       -156.79240027191759       -16.934065954953514     
  -322.62888934076273       -628.20977456546791        35.807624214504848     
  -342.18885738822297        520.46058373268352       -28.055067732532795     
   560.53125077414143        282.01704289547774       -6.1981917045445218     
  -664.58795744576639       -120.26619470838281        2.9016708538018725     
  -553.55089470864016        323.50675782893495       -9.9940849969744665     
  -632.60786519420708       -262.94099587113510       -12.074610843625964     
   543.60846255496301       -406.39483712546661        6.2295059473487537     
   615.13949244987339       -257.98053766774518        15.477274929494365     
  -561.29298182153491       -408.68268345338060        13.463413193080374     
   114.47957678651655        598.77008109791177        23.010863396587119     
   59.683541821550065       -703.67180936733052       0.86729641558710191     
   475.77834674475247        397.28464861685512       -7.0348640400257221     
   642.90663902721633        43.590564996078420        2.7856463867408690     
   437.30528111887475        435.85853168776293       -35.585541696407901     
  -302.23015968687270        542.01221921958938       -10.766738432333872     
  -499.29376083745552        392.50955504482215       -3.1245153523346931     
   391.96288566047338        474.08733931455345       0.22254297468996653     
   646.98994821617009       -104.16653399935132       -25.783810437436539     
  -188.43644496935386       -682.57544258608084       0.50437511389205303     
   465.91372312983441       -504.55337952588661        16.898135062578152     
   366.67448526481195        492.56895664234389       -8.4581139970483026     
   649.36886952896771       -49.743823121621837        10.895512848215057     
  -382.88226323817344        494.62012967029455      -0.13994462219702597     
  -324.73962210167451        530.30476783588529       -14.303315657917631     
  -582.34047365977506       -374.17898493319711       -6.7569929543456206     
   524.41025274381752        337.68447407241553        21.771984496268754     
  -198.43551947626392       -679.66938421632244        6.2884165360491000     
   312.84232880381114       -623.05677142549212        4.5501690985113710     
   198.14875540733362       -673.70941886823721       -24.630278892871502     
   553.72585885386968        293.48996698493016       -2.5094163106837883     
   600.67701676915226       -296.94478082475172       -21.267974251208337     
  -357.87610634967501       -607.75327174876804       -13.730106330134486     
   637.55438987155287       -172.48524556443920       -16.619487951489827     
   326.59796494728607        518.36206029556706       -11.229325259003115     
  -562.15848600217691        310.60197525998285       -11.088565042568785     
  -530.06828938605918        355.71783381968601      -0.79424864504672077     
   265.37820768560454        550.44610331710203       -26.208555535760148     
   634.24900838165672        91.884447055218686       -1.1444325014430103     
   219.82207015284874        569.33282676987028        18.300735317649409     
  -411.49374284206709       -570.54979820796666       -13.209639454910619     
  -34.407255989564341        610.08852338447923        5.1126039456821673     
   343.85132151971345       -604.51446770587791        16.659413844751832     
  -468.90795217114373       -520.84237812489823       -31.390598412911832     
   615.34284483978138       -257.35012566464474        7.2652526408560103     
   583.18353994086465       -336.16586085110487       -30.485009925289805     
   457.49088439304830        416.42651375251239       -12.749569110671702     
  -232.52033938508890        571.69967525104653       -4.4494081981241642     
   647.95378837548321       -5.5034594787880167        23.769283350252309     
  -604.59993998889547        234.73147316957795       -18.634758499798163     
  -661.24402086973453        49.280700976477100        16.665763391120795     
   364.62476324250929       -590.74424001250043       -12.176949820397738     
  -454.03394358421235        438.10097566712068        5.8735231907285188     
   647.22858136883804        4.4764174611272765       -5.7156120773083812     
   612.06140184928086       -266.89174570780528       -3.1141414321857361     
   166.18869705756433       -683.43768753028996       -18.585588079814450     
   544.44607043194742       -405.09328190099654       -1.5437159627792794     
  -665.19934551744120        17.737081062222508       -15.291181057444392     
  -432.20529182801380        457.17928698373288       -26.118764422731843     
   362.46645770679044        495.46840241155758       -4.1612387303646106     
   497.13450920106493       -469.61027516662307        7.3019549184636769     
   8.4545108963833489       -707.06706876684325       -11.390481304393935     
  -644.84941364919780        126.69128536837979       -5.4545813787765507     
   545.22792855603211       -403.89434527968461       -1.2920608629251376     
  -668.53753572146877       -49.239394008023915       0.64671004913966190     
   223.00117742112329       -664.90253123942455       -4.9772069620491655     
  -561.13277563115957        312.17569285268479       -7.5423064729051132     
   589.55247373840268       -322.65525509979778        8.2164791442264100     
  -636.17615126495787        155.53248697610866        3.4000560540656717     
   167.40666385049275        586.34799830429540        25.215263728168186     
   648.43245940654708       -13.599322505726946       -1.9531082505986548     
  -415.62113217740961        470.59069475137210       -15.749143098013349     
  -434.33109565780205        455.39138214336060       -5.2632693838256825     
   203.62329374220687        575.11204502706300        14.357617017926366     
  -556.72732833620171        318.81372779383292       -21.942413706412459     
   560.57742896701404       -378.69721849780723       -22.394121368568062     
  -607.37699024522931        228.82940781094771       -19.143476311423100     
  -617.96408553183903        204.74616558716451       -9.9509452561046938     
  -320.88133385938369       -629.14927025365205       0.93837447204789737     
   558.56875357464537       -382.14801892199171       -28.814811988480667     
   292.04948422464076       -634.23860860283639        10.995230259672734     
   446.13064833827804       -524.32379266156670       -41.532701142549627     
  -66.173476468578684        608.12204978533305        11.004457751945735     
   350.86247480356047        503.23150601305917        16.064548257749745     
   604.08058421542421       -288.40622890599502       -6.8628191226242308     
  -183.07594725026021       -684.06380982345524       -17.183134166941024     
  -558.41920061872156        316.28175844113065      -0.76031407055558176     
  -442.11318400526682        448.72657084460923        33.674366335626246     
  -637.01070095574585        152.94838788136019       -5.8621074812776381     
  -660.72804242727602        52.687840523586608       -10.790522651398797     
  -68.393701783476928       -704.68309764154515        27.198431879489664     
   641.51044365018424       -149.72354047336256       -1.3387067490950320     
  -327.34265192262279        528.88043524624788       -9.4484297669712536     
  -216.12869193379947        577.35257530386548        6.9814360183881590     
   258.07229466908262        553.76209579466604       -4.6377847622682751     
  -592.29369911318963        259.28546100900030        20.956824823962666     
  -252.60668103494157        564.10950452297607       -26.000835276738201     
  -62.450825453864667       -705.19730547174083        20.564360052416404     
   440.11356335738151        433.25137180903494       -18.369838743036311     
  -528.35733480449676       -454.66704220337090        13.088478687956103     
  -531.89566455885642        353.36003373250617       -5.4403177495492443     
   438.70966478789973        434.57842766502199       -17.132841852846571     
   563.15830827148557       -374.20104529445217       -9.5451453684008047     
   641.28681207701948        54.386024169888721       -6.7555687148929868     
   450.52168436751839        423.31485033734020        20.096001260802804     
  -644.51068948638556        127.86654636760085        29.677116058580786     
   616.51929601402969       -253.77070878814726        18.156155156181406     
  -637.84550208081964        150.34258237092959       -15.547097008680058     
   593.64879308896218        216.78709245855180       -11.012858926082012     
   264.54437120144928       -647.60632289241732       -3.1572836124656174     
